# 3D point list with one line of data per point:
#   POINT3D_ID, X, Y, Z, R, G, B, ERROR, TRACK[] as (IMAGE_ID, POINT2D_IDX)
# Number of points: 106, mean track length: 2.8773584905660377
59 0.12688216745372141 0.03642871024197044 0.046525344897525037 210 198 189 0.65511206216082751 3 901 1 1022 2 627
58 0.35764397411743065 -0.065932084688037323 0.13064385621555075 44 41 33 1.4580864628906287 3 1275 1 988 2 1935
57 0.23834432780536283 -0.014594884713224806 0.079246625488631789 215 208 201 0.74356402001887378 3 911 1 948 2 914
56 0.12502432229421914 0.093092594999674108 0.20107977328267426 214 199 186 2.4416572586479295 3 1130 1 917 2 7215
55 0.19820833339578212 -0.03674895009139309 -0.054018750691195772 84 29 18 0.38252635636276483 3 591 1 911 2 606
54 0.11335623414231129 0.13182255982444038 0.30419737807102765 112 104 94 1.2453836623003796 3 976 1 890 2 7353
53 0.27844959469556624 0.017817905477159147 0.23683634214686822 213 195 185 0.85990591018355766 3 800 1 887 2 845
52 0.28903253680036933 0.010539858763778547 0.23571172924905384 89 70 68 0.65366761012173913 3 2758 1 882 2 10582
51 0.12225611493761931 0.087419089668747299 0.18696600249346546 79 61 56 0.11975218369949919 3 7175 1 857
50 0.16762870944009411 0.069378325449739528 0.20356127048548767 213 198 189 1.1071239431333251 3 939 1 854 2 755
49 0.16922929304451148 0.062026723563779071 0.18477421083919873 201 185 176 1.2397659857682133 3 924 1 764 2 1397
48 0.23614784742203673 -0.053301346077577166 -0.043771291285564784 89 35 23 0.70177033806508649 3 1494 1 675 2 570
47 0.24814227719058152 -0.059582461096631421 -0.039247905594004012 89 32 23 0.21808738781173265 3 593 1 674 2 574
46 0.2851224516609665 -0.076310446405609661 -0.028788185169955707 88 36 26 0.47259999951059289 3 584 1 672 2 643
45 0.33332789716871569 -0.099164929536870741 -0.013475476663332209 88 37 26 0.65118581352474514 3 1075 1 668 2 616
44 0.31869730470016761 -0.099559833642056964 -0.020673843331456918 59 49 47 0.54501643910409014 3 595 1 666 2 620
43 0.37223261099933314 -0.12267043092901173 -0.0060822894630760569 72 61 57 1.6255018828260155 3 1079 1 659 2 1490
42 0.3317550961863468 -0.10722785851547648 -0.038744084142768913 184 180 165 2.7014221573350423 3 2221 1 655 2 7495
41 0.35219261556298098 -0.030914897241340965 0.2217874588855249 239 230 214 1.7526946077962744 3 333 1 615 2 850
40 0.12862612631367032 0.029052606682468202 0.027751304820132414 208 188 171 0.82325245547330217 3 646 1 592 2 681
39 0.14422175493609141 0.021746039645417617 0.032054997530828362 239 214 204 0.39394253933929657 3 952 1 588
38 0.17625801119554868 0.023476721403337335 0.081732550753374836 98 34 22 0.46120167192118422 3 870 1 571 2 1580
37 0.24062117686615786 -0.021978355443448856 0.061182352582212156 213 194 182 0.33544564985631409 3 397 1 563 2 866
36 0.18657693003768491 0.046570586799755738 0.17157612675631284 238 224 210 1.538136223212059 3 958 1 514 2 789
35 0.14454549792620833 0.090529843469658991 0.21714168748491727 99 34 25 0.26043495285991036 3 802 1 505
34 0.25342310086044595 0.031501704506647736 0.22492490354772293 196 177 168 2.0386909783419154 3 1018 1 501 2 7141
33 0.088058308502129992 0.10164075489935971 0.15135811818894127 102 46 32 0.79869638488068107 3 956 1 499 2 1691
32 0.26789022590584938 -0.12244350560294434 -0.18257739210070034 214 201 185 0.7948883766702215 3 766 1 490 2 706
31 0.32435327409801507 -0.11671111285888498 -0.064676162363620782 78 66 59 0.40515901565888263 3 606 1 466 2 566
30 0.27994207961385342 -0.12320221560222316 -0.16426060129336567 184 177 165 1.566287077030351 3 721 1 459 2 718
13 0.28994528724719842 0.0027555359338394046 0.21054501396032302 91 70 63 0.88723527446217654 3 332 1 237 2 837
12 0.12548140506670247 0.072516706334373252 0.12944458353777824 175 150 151 0.38897104769682034 1 215 2 698
11 0.29980106034242737 0.011013443502956155 0.25493246398278246 78 64 57 0.48045014400477593 3 342 1 214 2 555
10 0.35544099466043533 -0.015510128593435115 0.27122042468139773 85 67 55 0.9255457501868497 3 344 1 210 2 381
9 0.23368475687019818 0.028961043039059831 0.19442582644822559 87 75 66 0.3771675900230595 3 343 1 208 2 762
8 0.28576723454304426 -0.12400877369331981 -0.15290488471143346 55 48 47 0.65070458752400107 3 432 1 199 2 403
7 0.27369549558483758 -0.12299343782320535 -0.17272833950594554 65 61 57 0.18411459273726694 3 278 1 198 2 712
6 0.23621196350373727 -0.025646246272377046 0.043402702202279424 100 42 33 1.1151244152127193 3 643 1 186 2 1635
5 0.21070405140328236 -0.048508297917655409 -0.057500726719140083 69 56 51 1.4868162329678407 3 574 1 181 2 985
4 0.26364439253453559 -0.088811908375144036 -0.085888291276046538 83 71 64 0.47667989108757319 3 276 1 172 2 409
3 0.25232658706653538 8.1180962782158975e-05 0.11095137899524574 82 37 26 0.45244962480866224 3 188 1 95 2 299
2 0.30891581320313966 -0.025046626404698243 0.12712115145923464 91 43 34 1.4876424480954384 3 139 1 94 2 198
1 0.22132414972981376 -0.061889656150604433 -0.08778349406832521 172 153 139 1.5398767062617618 3 44 1 51 2 113
14 0.37915601329138576 -0.13540875409669267 -0.025532304414702243 210 195 177 1.3081446006227966 3 400 1 261 2 614
15 0.35601288584388335 -0.082958727345002578 0.074960653987838327 227 213 195 0.356991277221131 3 361 1 271 2 902
16 0.28094730177155158 -0.13062731773840927 -0.17575167171964523 218 210 189 1.5940363238060913 3 456 1 285 2 420
17 0.27245758688411442 -0.11744320815780186 -0.15817548359695552 59 54 52 0.86151547496249503 3 461 1 289 2 719
80 0.14122301469894577 0.075207337493616577 0.17971120486520178 118 87 78 0.37695131069290694 3 11399 1 1609
21 0.24208924149635391 0.020948782517102173 0.18825536139039126 238 221 202 1.4637006579597098 3 919 1 332 2 760
81 0.29881671284492239 -0.0023421743911909696 0.22160619666469614 77 56 48 0.3386809446310956 3 1255 1 1636 2 1428
22 0.14740371737267982 -0.026001902486260817 -0.10098452567310712 225 205 187 0.37803910062919527 3 605 1 356 2 1031
82 0.35183543749032342 -0.020862791412665494 0.2572716809691688 87 68 63 0.57106804676250111 3 2747 1 1644 2 1865
23 0.21362713944991543 -0.064370010771355179 -0.09156146594726737 232 226 208 1.7911149150442622 3 1563 1 369 2 6636
83 0.27993423018112701 0.01015095483050002 0.21847692367760951 202 186 172 1.27000411685286 3 1254 1 1648 2 839
24 0.27522734702446294 -0.09379159036324422 -0.079713083094481829 81 69 63 0.37572818727316942 3 600 1 370 2 599
84 0.34237780485981373 -0.0073541395198462702 0.27150419327532083 59 45 42 2.2643006563022143 3 2784 1 1681 2 1184
25 0.26211682039962908 -0.043537383345670283 0.041876592555846665 60 38 34 0.33979744652882937 3 422 1 406 2 898
85 0.3426107670854488 -0.0029322207723747199 0.28015004007879168 136 55 39 2.2839289482888341 3 2774 1 1691 2 803
26 0.31758390992713054 -0.069926805314896243 0.05865045687062384 67 41 38 0.66424544928114138 3 418 1 411 2 480
86 0.14177132783896923 0.072929958746252313 0.17175318827203057 95 55 45 0.58900986172918057 3 2589 1 1697
27 0.30835616236471497 -0.06297168081341234 0.051613961605325033 69 43 39 1.5661106149476334 3 419 1 442 2 483
87 0.23885050069831884 -0.04894534464851117 -0.041477825269583588 177 70 45 0.39740480625957825 3 2925 1 1722 2 1733
28 0.34288623303411569 -0.054752509547723587 0.13229495624374518 90 34 23 0.58771869097873486 3 884 1 444 2 792
88 0.14652722183186284 -0.012954712485235546 -0.068184402326563476 131 53 41 0.31692518193757629 3 2196 1 1791 2 3481
29 0.21561742046874904 0.0069582039786170152 0.092141371510056441 98 35 24 0.60573014246167511 3 875 1 445 2 931
89 0.31571168417955991 -0.19424881785059239 -0.29391899634585239 191 194 193 2.2453073725570034 3 1997 1 2020 2 2451
90 0.3012893421180261 -0.13671830944402308 -0.17731737664202335 81 35 26 2.5717162432870757 3 1380 1 2701 2 7046
91 0.16229272343710105 0.036885817793101169 0.077467294563171335 174 67 44 0.23497038988209953 3 6970 1 4107 2 1661
92 0.30069483929042162 -0.00050948267054764379 0.22457460491481945 206 202 190 0.22656245247906034 3 7207 1 4259 2 5434
93 0.12785137179247613 0.03270480008705573 0.045323888229344508 96 72 80 0.29816463967445617 3 7080 1 4397
79 0.17633764360549606 0.071228342052925886 0.22029312029289755 74 65 64 1.5214640682892906 3 1016 1 1565 2 7097
20 0.29131252430015386 -0.005139104719411901 0.19353478195753368 45 33 27 0.78068713477145935 3 542 1 328 2 773
108 0.36631998228591656 -0.17347810336152372 -0.18102478415361964 67 25 17 0.38113784231907216 3 8724 1 10505 2 9368
95 0.3183424720700273 -0.089861957312824092 -0.019265544762179516 142 62 46 1.321921048423135 3 1081 1 5653 2 609
78 0.1294094622916053 0.082675412681844487 0.19049242047406975 74 61 59 0.43017510848821844 3 1270 1 1561
19 0.29710442619843935 -0.047899807641954152 0.077426221034120946 208 190 176 0.67344163089995834 3 367 1 307 2 938
107 0.30943195135956264 -0.11416531059652942 -0.10411468084984238 70 28 19 0.34046233046240187 3 9398 1 10200 2 9799
94 0.1686113953770067 -0.032887693893374946 -0.093738943446288484 120 103 100 1.291190674017149 3 12236 1 5599 2 15545
106 0.29475520898183155 0.05610431280270689 0.36145752259803565 57 29 23 2.854749213195801 3 13413 1 7998 2 11096
104 0.36114870398094384 -0.094521791920619005 0.031047856693790291 115 51 37 0.97592709596293548 3 12468 1 7194 2 18675
103 0.18575740857045012 -0.0088131885241943767 0.0050341444065092273 101 42 32 0.89786954475898195 3 6268 1 6999
101 0.18988146664939018 0.050122407219438191 0.19645284715807726 121 98 89 0.68915730455010338 3 11309 1 6616
100 0.167998607420004 0.065698263888364278 0.20263607081010415 114 101 101 0.039027730859776275 3 7152 1 6378
99 0.12998655905575329 0.027983678010576066 0.030775183105325791 136 104 112 0.35939770705523794 3 12480 1 6228
98 0.098906540005193735 0.044733743604049303 0.0071924975009911496 54 16 10 1.8018111950362252 3 16184 1 6206 2 19681
97 0.25712750881575946 -0.002372886874067278 0.1236106863212655 74 27 19 0.51057167222010935 3 21956 1 6097 2 19305
96 0.3197577351137183 -0.10423507531445099 -0.033529708564154832 79 73 68 1.0835274354745235 3 2217 1 5913 2 1821
77 0.26774623946539128 -0.11013914631183934 -0.14960161176807238 128 56 42 1.0664293416968631 3 1564 1 1443 2 1069
18 0.18269488917683191 0.062160872160893492 0.20950349674327737 218 199 188 1.4841631590284941 3 495 1 305 2 761
76 0.26428920844939796 -0.11598622553915761 -0.16740388307833645 167 156 140 0.7195761367374125 3 732 1 1419 2 714
75 0.24129736594433474 -0.13879438017773763 -0.28025449659946133 175 176 179 2.2146996333853686 3 4098 1 1341 2 19717
74 0.24416578303678216 -0.1421257639811547 -0.2923167180777787 171 171 169 2.0828949630661442 3 1933 1 1301 2 8164
73 0.24306654422797169 -0.14005048324538416 -0.28694765739599537 171 173 174 1.8794644069665998 3 1909 1 1292 2 970
72 0.26757037455918858 -0.083441266486188326 -0.074915122376241733 119 99 92 1.1094425058141393 3 1475 1 1280 2 691
71 0.3019909196724479 -0.095630032738597368 -0.043917167435687736 194 189 172 0.80992008791466297 3 583 1 1266 2 581
70 0.38280140050877309 -0.13507594690359001 -0.023275251714865917 127 112 103 0.064736567024259187 3 2216 1 1237 2 11486
69 0.37554734531671607 -0.13147379233009845 -0.025024106106125325 110 100 97 0.91058645170159114 3 2218 1 1236 2 1784
68 0.15442162334371801 -0.027668726718934316 -0.094886883505640535 103 91 87 0.63235624673364899 3 2271 1 1228 2 2899
67 0.29725371366958109 -0.082385489484593913 -0.024418762801935515 86 31 21 0.39527066721588305 3 659 1 1227 2 651
66 0.2520723107956056 -0.065461392972947355 -0.036884796324747185 225 222 214 0.25826051658526111 3 2702 1 1220 2 1533
65 0.28788128769173432 -0.071751758349339209 -0.026481576448239973 174 65 43 0.23236372875938568 3 2958 1 1217 2 1824
64 0.20297008691340257 -0.042507658797128776 -0.052779110880654241 241 242 229 0.11771974486318555 3 1025 1 1203 2 1324
63 0.36691351103768766 -0.1186964618291656 -0.0027496221935241999 191 189 189 0.55126572473851032 3 2839 1 1197 2 1800
62 0.2431428946657252 -0.081183334602772994 -0.107248413565713 86 37 25 1.3758326079387686 3 706 1 1101 2 2852
61 0.18223672780353289 0.028940647090097187 0.091623594151527848 76 30 23 0.57742886548654526 3 1279 1 1032 2 1555
60 0.16022404329040088 0.032497896627401296 0.075448006510062351 91 29 21 0.19141045313091137 3 1164 1 1028
